357.626862 -71.512887 -32.000000
359.174777 -72.779363 -32.000000
360.722691 -74.045838 -32.000000
362.270606 -75.312314 -32.000000
363.818520 -76.578789 -32.000000
365.366435 -77.845265 -32.000000
368.000000 -80.000000 -32.000000
368.000000 -80.000000 -32.000000
368.000000 -81.200000 -30.400000
368.000000 -82.400000 -28.800000
368.000000 -83.600000 -27.200000
368.000000 -84.800000 -25.600000
368.000000 -86.000000 -24.000000
368.000000 -87.200000 -22.400000
368.000000 -88.400000 -20.800000
368.000000 -89.600000 -19.200000
368.000000 -90.800000 -17.600000
368.000000 -92.000000 -16.000000
368.000000 -93.200000 -14.400000
368.000000 -94.400000 -12.800000
368.000000 -95.600000 -11.200000
368.000000 -96.800000 -9.600000
368.000000 -98.000000 -8.000000
368.000000 -99.200000 -6.400000
368.000000 -100.400000 -4.800000
368.000000 -101.600000 -3.200000
368.000000 -104.000000 0.000000
368.000000 -104.000000 0.000000
366.513412 -105.337929 0.000000
365.026823 -106.675859 0.000000
363.540235 -108.013788 0.000000
362.053647 -109.351718 0.000000
360.567059 -110.689647 0.000000
359.080470 -112.027577 0.000000
357.593882 -113.365506 0.000000
356.107294 -114.703436 0.000000
354.620705 -116.041365 0.000000
353.134117 -117.379295 0.000000
351.647529 -118.717224 0.000000
350.160940 -120.055154 0.000000
348.674352 -121.393083 0.000000
347.187764 -122.731012 0.000000
345.701176 -124.068942 0.000000
344.214587 -125.406871 0.000000
342.727999 -126.744801 0.000000
341.241411 -128.082730 0.000000
339.754822 -129.420660 0.000000
338.268234 -130.758589 0.000000
336.781646 -132.096519 0.000000
335.295058 -133.434448 0.000000
333.808469 -134.772378 0.000000
332.321881 -136.110307 0.000000
330.835293 -137.448237 0.000000
329.348704 -138.786166 0.000000
327.862116 -140.124096 0.000000
326.375528 -141.462025 0.000000
324.888940 -142.799954 0.000000
323.402351 -144.137884 0.000000
321.915763 -145.475813 0.000000
320.429175 -146.813743 0.000000
318.942586 -148.151672 0.000000
317.455998 -149.489602 0.000000
315.969410 -150.827531 0.000000
314.482821 -152.165461 0.000000
312.996233 -153.503390 0.000000
311.509645 -154.841320 0.000000
310.023057 -156.179249 0.000000
308.536468 -157.517179 0.000000
307.049880 -158.855108 0.000000
305.563292 -160.193037 0.000000
304.076703 -161.530967 0.000000
302.590115 -162.868896 0.000000
301.103527 -164.206826 0.000000
299.616939 -165.544755 0.000000
298.130350 -166.882685 0.000000
296.643762 -168.220614 0.000000
295.157174 -169.558544 0.000000
293.670585 -170.896473 0.000000
292.183997 -172.234403 0.000000
290.697409 -173.572332 0.000000
289.210820 -174.910262 0.000000
287.724232 -176.248191 0.000000
286.237644 -177.586120 0.000000
284.751056 -178.924050 0.000000
283.264467 -180.261979 0.000000
281.777879 -181.599909 0.000000
280.291291 -182.937838 0.000000
278.804702 -184.275768 0.000000
277.318114 -185.613697 0.000000
275.831526 -186.951627 0.000000
274.344938 -188.289556 0.000000
272.858349 -189.627486 0.000000
271.371761 -190.965415 0.000000
269.885173 -192.303345 0.000000
268.398584 -193.641274 0.000000
266.911996 -194.979204 0.000000
265.425408 -196.317133 0.000000
263.938820 -197.655062 0.000000
262.452231 -198.992992 0.000000
260.965643 -200.330921 0.000000
259.479055 -201.668851 0.000000
257.992466 -203.006780 0.000000
256.505878 -204.344710 0.000000
255.019290 -205.682639 0.000000
253.532701 -207.020569 0.000000
252.046113 -208.358498 0.000000
250.559525 -209.696428 0.000000
249.072937 -211.034357 0.000000
247.586348 -212.372287 0.000000
246.099760 -213.710216 0.000000
244.613172 -215.048145 0.000000
243.126583 -216.386075 0.000000
241.639995 -217.724004 0.000000
240.153407 -219.061934 0.000000
238.666819 -220.399863 0.000000
237.180230 -221.737793 0.000000
235.693642 -223.075722 0.000000
234.207054 -224.413652 0.000000
232.720465 -225.751581 0.000000
231.233877 -227.089511 0.000000
229.747289 -228.427440 0.000000
228.260701 -229.765370 0.000000
226.774112 -231.103299 0.000000
225.287524 -232.441228 0.000000
223.800936 -233.779158 0.000000
222.314347 -235.117087 0.000000
220.827759 -236.455017 0.000000
219.341171 -237.792946 0.000000
217.854582 -239.130876 0.000000
216.367994 -240.468805 0.000000
214.881406 -241.806735 0.000000
213.394818 -243.144664 0.000000
211.908229 -244.482594 0.000000
210.421641 -245.820523 0.000000
208.935053 -247.158453 0.000000
207.448464 -248.496382 0.000000
205.961876 -249.834311 0.000000
204.475288 -251.172241 0.000000
202.988700 -252.510170 0.000000
201.502111 -253.848100 0.000000
200.015523 -255.186029 0.000000
198.528935 -256.523959 0.000000
197.042346 -257.861888 0.000000
195.555758 -259.199818 0.000000
194.069170 -260.537747 0.000000
192.582581 -261.875677 0.000000
191.095993 -263.213606 0.000000
189.609405 -264.551536 0.000000
188.122817 -265.889465 0.000000
186.636228 -267.227395 0.000000
185.149640 -268.565324 0.000000
183.663052 -269.903253 0.000000
182.176463 -271.241183 0.000000
180.689875 -272.579112 0.000000
179.203287 -273.917042 0.000000
177.716699 -275.254971 0.000000
176.230110 -276.592901 0.000000
174.743522 -277.930830 0.000000
173.256934 -279.268760 0.000000
171.770345 -280.606689 0.000000
170.283757 -281.944619 0.000000
168.797169 -283.282548 0.000000
167.310581 -284.620478 0.000000
165.823992 -285.958407 0.000000
164.337404 -287.296336 0.000000
162.850816 -288.634266 0.000000
161.364227 -289.972195 0.000000
159.877639 -291.310125 0.000000
158.391051 -292.648054 0.000000
156.904462 -293.985984 0.000000
155.417874 -295.323913 0.000000
153.931286 -296.661843 0.000000
152.444698 -297.999772 0.000000
150.958109 -299.337702 0.000000
149.471521 -300.675631 0.000000
147.984933 -302.013561 0.000000
146.498344 -303.351490 0.000000
145.011756 -304.689419 0.000000
143.525168 -306.027349 0.000000
142.038580 -307.365278 0.000000
140.551991 -308.703208 0.000000
139.065403 -310.041137 0.000000
137.578815 -311.379067 0.000000
136.092226 -312.716996 0.000000
134.605638 -314.054926 0.000000
133.119050 -315.392855 0.000000
131.632461 -316.730785 0.000000
130.145873 -318.068714 0.000000
128.659285 -319.406644 0.000000
127.172697 -320.744573 0.000000
125.686108 -322.082503 0.000000
124.199520 -323.420432 0.000000
122.712932 -324.758361 0.000000
121.226343 -326.096291 0.000000
119.739755 -327.434220 0.000000
118.253167 -328.772150 0.000000
116.766579 -330.110079 0.000000
115.279990 -331.448009 0.000000
113.793402 -332.785938 0.000000
112.306814 -334.123868 0.000000
110.820225 -335.461797 0.000000
109.333637 -336.799727 0.000000
107.847049 -338.137656 0.000000
106.360461 -339.475586 0.000000
104.873872 -340.813515 0.000000
103.387284 -342.151444 0.000000
101.900696 -343.489374 0.000000
100.414107 -344.827303 0.000000
98.927519 -346.165233 0.000000
97.440931 -347.503162 0.000000
95.954342 -348.841092 0.000000
94.467754 -350.179021 0.000000
92.981166 -351.516951 0.000000
91.494578 -352.854880 0.000000
90.007989 -354.192810 0.000000
88.521401 -355.530739 0.000000
87.034813 -356.868669 0.000000
85.548224 -358.206598 0.000000
84.061636 -359.544527 0.000000
82.575048 -360.882457 0.000000
81.088460 -362.220386 0.000000
79.601871 -363.558316 0.000000
78.115283 -364.896245 0.000000
76.628695 -366.234175 0.000000
75.142106 -367.572104 0.000000
73.655518 -368.910034 0.000000
72.168930 -370.247963 0.000000
70.682342 -371.585893 0.000000
69.195753 -372.923822 0.000000
67.709165 -374.261752 0.000000
66.222577 -375.599681 0.000000
64.735988 -376.937611 0.000000
63.249400 -378.275540 0.000000
61.762812 -379.613469 0.000000
60.276223 -380.951399 0.000000
58.789635 -382.289328 0.000000
57.303047 -383.627258 0.000000
55.816459 -384.965187 0.000000
54.329870 -386.303117 0.000000
52.843282 -387.641046 0.000000
51.356694 -388.978976 0.000000
49.870105 -390.316905 0.000000
48.000000 -392.000000 0.000000
48.000000 -392.000000 0.000000
48.000000 -393.989563 -0.204058
48.000000 -395.979126 -0.408115
48.000000 -397.968689 -0.612173
48.000000 -399.958252 -0.816231
48.000000 -401.947814 -1.020289
48.000000 -403.937377 -1.224346
48.000000 -405.926940 -1.428404
48.000000 -407.916503 -1.632462
48.000000 -409.906066 -1.836520
48.000000 -411.895629 -2.040577
48.000000 -413.885192 -2.244635
48.000000 -415.874755 -2.448693
48.000000 -417.864317 -2.652751
48.000000 -419.853880 -2.856808
48.000000 -421.843443 -3.060866
48.000000 -423.833006 -3.264924
48.000000 -425.822569 -3.468981
48.000000 -427.812132 -3.673039
48.000000 -429.801695 -3.877097
48.000000 -431.791258 -4.081155
48.000000 -433.780820 -4.285212
48.000000 -435.770383 -4.489270
48.000000 -437.759946 -4.693328
48.000000 -439.749509 -4.897386
48.000000 -441.739072 -5.101443
48.000000 -443.728635 -5.305501
48.000000 -445.718198 -5.509559
48.000000 -447.707761 -5.713616
48.000000 -449.697323 -5.917674
48.000000 -451.686886 -6.121732
48.000000 -453.676449 -6.325790
48.000000 -455.666012 -6.529847
48.000000 -457.655575 -6.733905
48.000000 -459.645138 -6.937963
48.000000 -461.634701 -7.142021
48.000000 -463.624264 -7.346078
48.000000 -465.613826 -7.550136
48.000000 -467.603389 -7.754194
48.000000 -469.592952 -7.958252
48.000000 -471.582515 -8.162309
48.000000 -473.572078 -8.366367
48.000000 -475.561641 -8.570425
48.000000 -477.551204 -8.774482
48.000000 -479.540767 -8.978540
48.000000 -481.530329 -9.182598
48.000000 -483.519892 -9.386656
48.000000 -485.509455 -9.590713
48.000000 -487.499018 -9.794771
48.000000 -489.488581 -9.998829
48.000000 -491.478144 -10.202887
48.000000 -493.467707 -10.406944
48.000000 -495.457270 -10.611002
48.000000 -497.446832 -10.815060
48.000000 -499.436395 -11.019117
48.000000 -501.425958 -11.223175
48.000000 -503.415521 -11.427233
48.000000 -505.405084 -11.631291
48.000000 -507.394647 -11.835348
48.000000 -509.384210 -12.039406
48.000000 -511.373773 -12.243464
48.000000 -513.363336 -12.447522
48.000000 -515.352898 -12.651579
48.000000 -517.342461 -12.855637
48.000000 -519.332024 -13.059695
48.000000 -521.321587 -13.263753
48.000000 -523.311150 -13.467810
48.000000 -525.300713 -13.671868
48.000000 -527.290276 -13.875926
48.000000 -529.279839 -14.079983
48.000000 -531.269401 -14.284041
48.000000 -533.258964 -14.488099
48.000000 -535.248527 -14.692157
48.000000 -537.238090 -14.896214
48.000000 -539.227653 -15.100272
48.000000 -541.217216 -15.304330
48.000000 -543.206779 -15.508388
48.000000 -545.196342 -15.712445
48.000000 -547.185904 -15.916503
48.000000 -549.175467 -16.120561
48.000000 -551.165030 -16.324618
48.000000 -553.154593 -16.528676
48.000000 -555.144156 -16.732734
48.000000 -557.133719 -16.936792
48.000000 -559.123282 -17.140849
48.000000 -561.112845 -17.344907
48.000000 -563.102407 -17.548965
48.000000 -565.091970 -17.753023
48.000000 -567.081533 -17.957080
48.000000 -569.071096 -18.161138
48.000000 -571.060659 -18.365196
48.000000 -573.050222 -18.569254
48.000000 -575.039785 -18.773311
48.000000 -577.029348 -18.977369
48.000000 -579.018910 -19.181427
48.000000 -581.008473 -19.385484
48.000000 -582.998036 -19.589542
48.000000 -584.987599 -19.793600
48.000000 -586.977162 -19.997658
48.000000 -588.966725 -20.201715
48.000000 -590.956288 -20.405773
48.000000 -592.945851 -20.609831
48.000000 -594.935413 -20.813889
48.000000 -596.924976 -21.017946
48.000000 -598.914539 -21.222004
48.000000 -600.904102 -21.426062
48.000000 -602.893665 -21.630119
48.000000 -604.883228 -21.834177
48.000000 -606.872791 -22.038235
48.000000 -608.862354 -22.242293
48.000000 -610.851916 -22.446350
48.000000 -612.841479 -22.650408
48.000000 -614.831042 -22.854466
48.000000 -616.820605 -23.058524
48.000000 -618.810168 -23.262581
48.000000 -620.799731 -23.466639
48.000000 -622.789294 -23.670697
48.000000 -624.778857 -23.874755
48.000000 -626.768420 -24.078812
48.000000 -628.757982 -24.282870
48.000000 -630.747545 -24.486928
48.000000 -632.737108 -24.690985
48.000000 -634.726671 -24.895043
48.000000 -636.716234 -25.099101
48.000000 -638.705797 -25.303159
48.000000 -640.695360 -25.507216
48.000000 -642.684923 -25.711274
48.000000 -644.674485 -25.915332
48.000000 -646.664048 -26.119390
48.000000 -648.653611 -26.323447
48.000000 -650.643174 -26.527505
48.000000 -652.632737 -26.731563
48.000000 -654.622300 -26.935620
48.000000 -656.611863 -27.139678
48.000000 -658.601426 -27.343736
48.000000 -660.590988 -27.547794
48.000000 -662.580551 -27.751851
48.000000 -664.570114 -27.955909
48.000000 -666.559677 -28.159967
48.000000 -668.549240 -28.364025
48.000000 -670.538803 -28.568082
48.000000 -672.528366 -28.772140
48.000000 -674.517929 -28.976198
48.000000 -676.507491 -29.180256
48.000000 -678.497054 -29.384313
48.000000 -680.486617 -29.588371
48.000000 -682.476180 -29.792429
48.000000 -684.465743 -29.996486
48.000000 -686.455306 -30.200544
48.000000 -688.444869 -30.404602
48.000000 -690.434432 -30.608660
48.000000 -692.423994 -30.812717
48.000000 -694.413557 -31.016775
48.000000 -696.403120 -31.220833
48.000000 -698.392683 -31.424891
48.000000 -700.382246 -31.628948
48.000000 -704.000000 -32.000000
48.000000 -704.000000 -32.000000
49.993092 -704.166091 -32.000000
51.986183 -704.332182 -32.000000
53.979275 -704.498273 -32.000000
55.972366 -704.664364 -32.000000
57.965458 -704.830455 -32.000000
59.958549 -704.996546 -32.000000
61.951641 -705.162637 -32.000000
63.944732 -705.328728 -32.000000
65.937824 -705.494819 -32.000000
67.930915 -705.660910 -32.000000
69.924007 -705.827001 -32.000000
71.917098 -705.993092 -32.000000
73.910190 -706.159182 -32.000000
75.903281 -706.325273 -32.000000
77.896373 -706.491364 -32.000000
79.889464 -706.657455 -32.000000
81.882556 -706.823546 -32.000000
83.875647 -706.989637 -32.000000
85.868739 -707.155728 -32.000000
87.861830 -707.321819 -32.000000
89.854922 -707.487910 -32.000000
91.848013 -707.654001 -32.000000
93.841105 -707.820092 -32.000000
95.834196 -707.986183 -32.000000
97.827288 -708.152274 -32.000000
99.820379 -708.318365 -32.000000
101.813471 -708.484456 -32.000000
103.806562 -708.650547 -32.000000
105.799654 -708.816638 -32.000000
107.792745 -708.982729 -32.000000
109.785837 -709.148820 -32.000000
111.778929 -709.314911 -32.000000
113.772020 -709.481002 -32.000000
115.765112 -709.647093 -32.000000
117.758203 -709.813184 -32.000000
119.751295 -709.979275 -32.000000
121.744386 -710.145366 -32.000000
123.737478 -710.311456 -32.000000
125.730569 -710.477547 -32.000000
127.723661 -710.643638 -32.000000
129.716752 -710.809729 -32.000000
131.709844 -710.975820 -32.000000
133.702935 -711.141911 -32.000000
135.696027 -711.308002 -32.000000
137.689118 -711.474093 -32.000000
139.682210 -711.640184 -32.000000
141.675301 -711.806275 -32.000000
143.668393 -711.972366 -32.000000
145.661484 -712.138457 -32.000000
147.654576 -712.304548 -32.000000
149.647667 -712.470639 -32.000000
151.640759 -712.636730 -32.000000
153.633850 -712.802821 -32.000000
155.626942 -712.968912 -32.000000
157.620033 -713.135003 -32.000000
159.613125 -713.301094 -32.000000
161.606216 -713.467185 -32.000000
163.599308 -713.633276 -32.000000
165.592399 -713.799367 -32.000000
167.585491 -713.965458 -32.000000
169.578583 -714.131549 -32.000000
171.571674 -714.297640 -32.000000
173.564766 -714.463730 -32.000000
175.557857 -714.629821 -32.000000
177.550949 -714.795912 -32.000000
179.544040 -714.962003 -32.000000
181.537132 -715.128094 -32.000000
183.530223 -715.294185 -32.000000
185.523315 -715.460276 -32.000000
187.516406 -715.626367 -32.000000
189.509498 -715.792458 -32.000000
192.000000 -716.000000 -32.000000
192.000000 -716.000000 -32.000000
192.632456 -714.102633 -32.000000
193.264911 -712.205267 -32.000000
193.897367 -710.307900 -32.000000
194.529822 -708.410534 -32.000000
195.162278 -706.513167 -32.000000
195.794733 -704.615800 -32.000000
196.427189 -702.718434 -32.000000
197.059644 -700.821067 -32.000000
197.692100 -698.923701 -32.000000
198.324555 -697.026334 -32.000000
198.957011 -695.128967 -32.000000
199.589466 -693.231601 -32.000000
200.221922 -691.334234 -32.000000
200.854377 -689.436868 -32.000000
201.486833 -687.539501 -32.000000
202.119289 -685.642134 -32.000000
202.751744 -683.744768 -32.000000
203.384200 -681.847401 -32.000000
204.016655 -679.950035 -32.000000
204.649111 -678.052668 -32.000000
205.281566 -676.155301 -32.000000
205.914022 -674.257935 -32.000000
206.546477 -672.360568 -32.000000
207.178933 -670.463202 -32.000000
207.811388 -668.565835 -32.000000
208.443844 -666.668469 -32.000000
209.076299 -664.771102 -32.000000
209.708755 -662.873735 -32.000000
210.341210 -660.976369 -32.000000
210.973666 -659.079002 -32.000000
211.606121 -657.181636 -32.000000
212.238577 -655.284269 -32.000000
212.871033 -653.386902 -32.000000
213.503488 -651.489536 -32.000000
214.135944 -649.592169 -32.000000
214.768399 -647.694803 -32.000000
215.400855 -645.797436 -32.000000
216.033310 -643.900069 -32.000000
216.665766 -642.002703 -32.000000
217.298221 -640.105336 -32.000000
217.930677 -638.207970 -32.000000
218.563132 -636.310603 -32.000000
219.195588 -634.413236 -32.000000
219.828043 -632.515870 -32.000000
220.460499 -630.618503 -32.000000
221.092954 -628.721137 -32.000000
221.725410 -626.823770 -32.000000
222.357866 -624.926403 -32.000000
222.990321 -623.029037 -32.000000
223.622777 -621.131670 -32.000000
224.255232 -619.234304 -32.000000
224.887688 -617.336937 -32.000000
225.520143 -615.439570 -32.000000
226.152599 -613.542204 -32.000000
226.785054 -611.644837 -32.000000
227.417510 -609.747471 -32.000000
228.049965 -607.850104 -32.000000
228.682421 -605.952737 -32.000000
229.314876 -604.055371 -32.000000
229.947332 -602.158004 -32.000000
230.579787 -600.260638 -32.000000
231.212243 -598.363271 -32.000000
231.844699 -596.465904 -32.000000
232.477154 -594.568538 -32.000000
233.109610 -592.671171 -32.000000
233.742065 -590.773805 -32.000000
234.374521 -588.876438 -32.000000
235.006976 -586.979071 -32.000000
235.639432 -585.081705 -32.000000
236.271887 -583.184338 -32.000000
236.904343 -581.286972 -32.000000
237.536798 -579.389605 -32.000000
238.169254 -577.492238 -32.000000
238.801709 -575.594872 -32.000000
239.434165 -573.697505 -32.000000
240.066620 -571.800139 -32.000000
240.699076 -569.902772 -32.000000
241.331531 -568.005406 -32.000000
241.963987 -566.108039 -32.000000
242.596443 -564.210672 -32.000000
243.228898 -562.313306 -32.000000
243.861354 -560.415939 -32.000000
244.493809 -558.518573 -32.000000
245.126265 -556.621206 -32.000000
245.758720 -554.723839 -32.000000
246.391176 -552.826473 -32.000000
247.023631 -550.929106 -32.000000
247.656087 -549.031740 -32.000000
248.288542 -547.134373 -32.000000
248.920998 -545.237006 -32.000000
249.553453 -543.339640 -32.000000
250.185909 -541.442273 -32.000000
250.818364 -539.544907 -32.000000
251.450820 -537.647540 -32.000000
252.083276 -535.750173 -32.000000
252.715731 -533.852807 -32.000000
253.348187 -531.955440 -32.000000
253.980642 -530.058074 -32.000000
254.613098 -528.160707 -32.000000
255.245553 -526.263340 -32.000000
255.878009 -524.365974 -32.000000
256.510464 -522.468607 -32.000000
257.142920 -520.571241 -32.000000
257.775375 -518.673874 -32.000000
258.407831 -516.776507 -32.000000
259.040286 -514.879141 -32.000000
259.672742 -512.981774 -32.000000
260.305197 -511.084408 -32.000000
260.937653 -509.187041 -32.000000
261.570109 -507.289674 -32.000000
262.202564 -505.392308 -32.000000
262.835020 -503.494941 -32.000000
263.467475 -501.597575 -32.000000
264.099931 -499.700208 -32.000000
264.732386 -497.802841 -32.000000
265.364842 -495.905475 -32.000000
265.997297 -494.008108 -32.000000
266.629753 -492.110742 -32.000000
267.262208 -490.213375 -32.000000
267.894664 -488.316008 -32.000000
268.527119 -486.418642 -32.000000
269.159575 -484.521275 -32.000000
269.792030 -482.623909 -32.000000
270.424486 -480.726542 -32.000000
271.056942 -478.829175 -32.000000
271.689397 -476.931809 -32.000000
272.321853 -475.034442 -32.000000
272.954308 -473.137076 -32.000000
273.586764 -471.239709 -32.000000
274.219219 -469.342343 -32.000000
274.851675 -467.444976 -32.000000
275.484130 -465.547609 -32.000000
276.116586 -463.650243 -32.000000
276.749041 -461.752876 -32.000000
277.381497 -459.855510 -32.000000
278.013952 -457.958143 -32.000000
278.646408 -456.060776 -32.000000
279.278863 -454.163410 -32.000000
279.911319 -452.266043 -32.000000
280.543774 -450.368677 -32.000000
281.176230 -448.471310 -32.000000
281.808686 -446.573943 -32.000000
282.441141 -444.676577 -32.000000
283.073597 -442.779210 -32.000000
283.706052 -440.881844 -32.000000
284.338508 -438.984477 -32.000000
284.970963 -437.087110 -32.000000
285.603419 -435.189744 -32.000000
286.235874 -433.292377 -32.000000
286.868330 -431.395011 -32.000000
288.000000 -428.000000 -32.000000
288.000000 -428.000000 -32.000000
289.887170 -428.653251 -32.108875
291.774339 -429.306502 -32.217750
293.661509 -429.959753 -32.326626
295.548679 -430.613004 -32.435501
297.435848 -431.266255 -32.544376
299.323018 -431.919506 -32.653251
301.210188 -432.572757 -32.762126
303.097357 -433.226008 -32.871001
304.984527 -433.879259 -32.979877
306.871696 -434.532510 -33.088752
308.758866 -435.185761 -33.197627
310.646036 -435.839012 -33.306502
312.533205 -436.492263 -33.415377
314.420375 -437.145514 -33.524252
316.307545 -437.798765 -33.633128
318.194714 -438.452017 -33.742003
320.081884 -439.105268 -33.850878
321.969054 -439.758519 -33.959753
323.856223 -440.411770 -34.068628
325.743393 -441.065021 -34.177503
327.630563 -441.718272 -34.286379
329.517732 -442.371523 -34.395254
331.404902 -443.024774 -34.504129
333.292072 -443.678025 -34.613004
335.179241 -444.331276 -34.721879
337.066411 -444.984527 -34.830754
338.953581 -445.637778 -34.939630
340.840750 -446.291029 -35.048505
342.727920 -446.944280 -35.157380
344.615089 -447.597531 -35.266255
346.502259 -448.250782 -35.375130
348.389429 -448.904033 -35.484006
350.276598 -449.557284 -35.592881
352.163768 -450.210535 -35.701756
354.050938 -450.863786 -35.810631
355.938107 -451.517037 -35.919506
357.825277 -452.170288 -36.028381
359.712447 -452.823539 -36.137257
361.599616 -453.476790 -36.246132
363.486786 -454.130041 -36.355007
365.373956 -454.783292 -36.463882
367.261125 -455.436543 -36.572757
369.148295 -456.089794 -36.681632
371.035465 -456.743045 -36.790508
372.922634 -457.396296 -36.899383
374.809804 -458.049547 -37.008258
376.696974 -458.702799 -37.117133
378.584143 -459.356050 -37.226008
380.471313 -460.009301 -37.334883
382.358482 -460.662552 -37.443759
384.245652 -461.315803 -37.552634
386.132822 -461.969054 -37.661509
388.019991 -462.622305 -37.770384
389.907161 -463.275556 -37.879259
391.794331 -463.928807 -37.988134
393.681500 -464.582058 -38.097010
395.568670 -465.235309 -38.205885
397.455840 -465.888560 -38.314760
399.343009 -466.541811 -38.423635
401.230179 -467.195062 -38.532510
403.117349 -467.848313 -38.641385
405.004518 -468.501564 -38.750261
406.891688 -469.154815 -38.859136
408.778858 -469.808066 -38.968011
410.666027 -470.461317 -39.076886
412.553197 -471.114568 -39.185761
414.440367 -471.767819 -39.294637
416.327536 -472.421070 -39.403512
418.214706 -473.074321 -39.512387
420.101875 -473.727572 -39.621262
421.989045 -474.380823 -39.730137
423.876215 -475.034074 -39.839012
425.763384 -475.687325 -39.947888
427.650554 -476.340576 -40.056763
429.537724 -476.993827 -40.165638
431.424893 -477.647078 -40.274513
433.312063 -478.300330 -40.383388
435.199233 -478.953581 -40.492263
437.086402 -479.606832 -40.601139
438.973572 -480.260083 -40.710014
440.860742 -480.913334 -40.818889
442.747911 -481.566585 -40.927764
444.635081 -482.219836 -41.036639
446.522251 -482.873087 -41.145514
448.409420 -483.526338 -41.254390
450.296590 -484.179589 -41.363265
452.183759 -484.832840 -41.472140
454.070929 -485.486091 -41.581015
455.958099 -486.139342 -41.689890
457.845268 -486.792593 -41.798765
459.732438 -487.445844 -41.907641
461.619608 -488.099095 -42.016516
463.506777 -488.752346 -42.125391
465.393947 -489.405597 -42.234266
467.281117 -490.058848 -42.343141
469.168286 -490.712099 -42.452017
471.055456 -491.365350 -42.560892
472.942626 -492.018601 -42.669767
474.829795 -492.671852 -42.778642
476.716965 -493.325103 -42.887517
478.604135 -493.978354 -42.996392
480.491304 -494.631605 -43.105268
482.378474 -495.284856 -43.214143
484.265644 -495.938107 -43.323018
486.152813 -496.591358 -43.431893
488.039983 -497.244609 -43.540768
489.927152 -497.897860 -43.649643
491.814322 -498.551112 -43.758519
493.701492 -499.204363 -43.867394
495.588661 -499.857614 -43.976269
497.475831 -500.510865 -44.085144
499.363001 -501.164116 -44.194019
501.250170 -501.817367 -44.302894
503.137340 -502.470618 -44.411770
505.024510 -503.123869 -44.520645
506.911679 -503.777120 -44.629520
508.798849 -504.430371 -44.738395
510.686019 -505.083622 -44.847270
512.573188 -505.736873 -44.956145
514.460358 -506.390124 -45.065021
516.347528 -507.043375 -45.173896
518.234697 -507.696626 -45.282771
520.121867 -508.349877 -45.391646
522.009037 -509.003128 -45.500521
523.896206 -509.656379 -45.609397
525.783376 -510.309630 -45.718272
527.670545 -510.962881 -45.827147
529.557715 -511.616132 -45.936022
531.444885 -512.269383 -46.044897
533.332054 -512.922634 -46.153772
535.219224 -513.575885 -46.262648
537.106394 -514.229136 -46.371523
538.993563 -514.882387 -46.480398
540.880733 -515.535638 -46.589273
542.767903 -516.188889 -46.698148
544.655072 -516.842140 -46.807023
546.542242 -517.495391 -46.915899
548.429412 -518.148642 -47.024774
550.316581 -518.801894 -47.133649
552.203751 -519.455145 -47.242524
554.090921 -520.108396 -47.351399
555.978090 -520.761647 -47.460274
557.865260 -521.414898 -47.569150
559.752430 -522.068149 -47.678025
561.639599 -522.721400 -47.786900
563.526769 -523.374651 -47.895775
565.413938 -524.027902 -48.004650
567.301108 -524.681153 -48.113525
569.188278 -525.334404 -48.222401
571.075447 -525.987655 -48.331276
572.962617 -526.640906 -48.440151
574.849787 -527.294157 -48.549026
576.736956 -527.947408 -48.657901
578.624126 -528.600659 -48.766777
580.511296 -529.253910 -48.875652
582.398465 -529.907161 -48.984527
584.285635 -530.560412 -49.093402
586.172805 -531.213663 -49.202277
588.059974 -531.866914 -49.311152
589.947144 -532.520165 -49.420028
591.834314 -533.173416 -49.528903
593.721483 -533.826667 -49.637778
595.608653 -534.479918 -49.746653
597.495822 -535.133169 -49.855528
599.382992 -535.786420 -49.964403
601.270162 -536.439671 -50.073279
603.157331 -537.092922 -50.182154
605.044501 -537.746173 -50.291029
606.931671 -538.399424 -50.399904
608.818840 -539.052676 -50.508779
610.706010 -539.705927 -50.617654
612.593180 -540.359178 -50.726530
614.480349 -541.012429 -50.835405
616.367519 -541.665680 -50.944280
618.254689 -542.318931 -51.053155
620.141858 -542.972182 -51.162030
622.029028 -543.625433 -51.270905
623.916198 -544.278684 -51.379781
625.803367 -544.931935 -51.488656
627.690537 -545.585186 -51.597531
629.577707 -546.238437 -51.706406
631.464876 -546.891688 -51.815281
633.352046 -547.544939 -51.924156
635.239215 -548.198190 -52.033032
637.126385 -548.851441 -52.141907
639.013555 -549.504692 -52.250782
640.900724 -550.157943 -52.359657
642.787894 -550.811194 -52.468532
644.675064 -551.464445 -52.577408
646.562233 -552.117696 -52.686283
648.449403 -552.770947 -52.795158
650.336573 -553.424198 -52.904033
652.223742 -554.077449 -53.012908
654.110912 -554.730700 -53.121783
655.998082 -555.383951 -53.230659
657.885251 -556.037202 -53.339534
659.772421 -556.690453 -53.448409
661.659591 -557.343704 -53.557284
663.546760 -557.996955 -53.666159
665.433930 -558.650206 -53.775034
667.321100 -559.303458 -53.883910
669.208269 -559.956709 -53.992785
671.095439 -560.609960 -54.101660
672.982608 -561.263211 -54.210535
674.869778 -561.916462 -54.319410
676.756948 -562.569713 -54.428285
678.644117 -563.222964 -54.537161
680.531287 -563.876215 -54.646036
682.418457 -564.529466 -54.754911
684.305626 -565.182717 -54.863786
686.192796 -565.835968 -54.972661
688.079966 -566.489219 -55.081536
689.967135 -567.142470 -55.190412
691.854305 -567.795721 -55.299287
693.741475 -568.448972 -55.408162
695.628644 -569.102223 -55.517037
697.515814 -569.755474 -55.625912
699.402984 -570.408725 -55.734788
701.290153 -571.061976 -55.843663
704.000000 -572.000000 -56.000000
704.000000 -572.000000 -56.000000
705.742505 -572.980159 -56.054453
707.485010 -573.960318 -56.108907
709.227515 -574.940477 -56.163360
710.970019 -575.920636 -56.217813
712.712524 -576.900795 -56.272266
714.455029 -577.880954 -56.326720
716.197534 -578.861113 -56.381173
717.940039 -579.841272 -56.435626
719.682544 -580.821431 -56.490079
721.425049 -581.801590 -56.544533
723.167554 -582.781749 -56.598986
724.910058 -583.761908 -56.653439
726.652563 -584.742067 -56.707893
728.395068 -585.722226 -56.762346
730.137573 -586.702385 -56.816799
731.880078 -587.682544 -56.871252
733.622583 -588.662703 -56.925706
735.365088 -589.642862 -56.980159
737.107592 -590.623021 -57.034612
738.850097 -591.603180 -57.089066
740.592602 -592.583339 -57.143519
742.335107 -593.563498 -57.197972
744.077612 -594.543657 -57.252425
745.820117 -595.523816 -57.306879
747.562622 -596.503975 -57.361332
749.305126 -597.484134 -57.415785
751.047631 -598.464293 -57.470238
752.790136 -599.444452 -57.524692
754.532641 -600.424611 -57.579145
756.275146 -601.404770 -57.633598
758.017651 -602.384929 -57.688052
759.760156 -603.365088 -57.742505
761.502661 -604.345247 -57.796958
763.245165 -605.325406 -57.851411
764.987670 -606.305565 -57.905865
766.730175 -607.285724 -57.960318
768.472680 -608.265882 -58.014771
770.215185 -609.246041 -58.069225
771.957690 -610.226200 -58.123678
773.700195 -611.206359 -58.178131
775.442699 -612.186518 -58.232584
777.185204 -613.166677 -58.287038
778.927709 -614.146836 -58.341491
780.670214 -615.126995 -58.395944
782.412719 -616.107154 -58.450397
784.155224 -617.087313 -58.504851
785.897729 -618.067472 -58.559304
787.640233 -619.047631 -58.613757
789.382738 -620.027790 -58.668211
791.125243 -621.007949 -58.722664
792.867748 -621.988108 -58.777117
794.610253 -622.968267 -58.831570
796.352758 -623.948426 -58.886024
798.095263 -624.928585 -58.940477
799.837768 -625.908744 -58.994930
801.580272 -626.888903 -59.049384
803.322777 -627.869062 -59.103837
805.065282 -628.849221 -59.158290
806.807787 -629.829380 -59.212743
808.550292 -630.809539 -59.267197
810.292797 -631.789698 -59.321650
812.035302 -632.769857 -59.376103
813.777806 -633.750016 -59.430556
815.520311 -634.730175 -59.485010
817.262816 -635.710334 -59.539463
819.005321 -636.690493 -59.593916
820.747826 -637.670652 -59.648370
822.490331 -638.650811 -59.702823
824.232836 -639.630970 -59.757276
825.975341 -640.611129 -59.811729
827.717845 -641.591288 -59.866183
829.460350 -642.571447 -59.920636
831.202855 -643.551606 -59.975089
832.945360 -644.531765 -60.029542
834.687865 -645.511924 -60.083996
836.430370 -646.492083 -60.138449
838.172875 -647.472242 -60.192902
839.915379 -648.452401 -60.247356
841.657884 -649.432560 -60.301809
843.400389 -650.412719 -60.356262
845.142894 -651.392878 -60.410715
846.885399 -652.373037 -60.465169
848.627904 -653.353196 -60.519622
850.370409 -654.333355 -60.574075
852.112913 -655.313514 -60.628529
853.855418 -656.293673 -60.682982
855.597923 -657.273832 -60.737435
857.340428 -658.253991 -60.791888
859.082933 -659.234150 -60.846342
860.825438 -660.214309 -60.900795
862.567943 -661.194468 -60.955248
864.310448 -662.174627 -61.009701
866.052952 -663.154786 -61.064155
867.795457 -664.134945 -61.118608
869.537962 -665.115104 -61.173061
871.280467 -666.095263 -61.227515
873.022972 -667.075422 -61.281968
874.765477 -668.055581 -61.336421
876.507982 -669.035740 -61.390874
878.250486 -670.015899 -61.445328
879.992991 -670.996058 -61.499781
881.735496 -671.976217 -61.554234
883.478001 -672.956376 -61.608688
885.220506 -673.936535 -61.663141
886.963011 -674.916694 -61.717594
888.705516 -675.896853 -61.772047
890.448020 -676.877012 -61.826501
892.190525 -677.857171 -61.880954
893.933030 -678.837329 -61.935407
895.675535 -679.817488 -61.989860
897.418040 -680.797647 -62.044314
899.160545 -681.777806 -62.098767
900.903050 -682.757965 -62.153220
902.645555 -683.738124 -62.207674
904.388059 -684.718283 -62.262127
906.130564 -685.698442 -62.316580
907.873069 -686.678601 -62.371033
909.615574 -687.658760 -62.425487
911.358079 -688.638919 -62.479940
913.100584 -689.619078 -62.534393
914.843089 -690.599237 -62.588847
916.585593 -691.579396 -62.643300
918.328098 -692.559555 -62.697753
920.070603 -693.539714 -62.752206
921.813108 -694.519873 -62.806660
923.555613 -695.500032 -62.861113
925.298118 -696.480191 -62.915566
927.040623 -697.460350 -62.970019
928.783128 -698.440509 -63.024473
930.525632 -699.420668 -63.078926
932.268137 -700.400827 -63.133379
934.010642 -701.380986 -63.187833
935.753147 -702.361145 -63.242286
937.495652 -703.341304 -63.296739
939.238157 -704.321463 -63.351192
940.980662 -705.301622 -63.405646
942.723166 -706.281781 -63.460099
944.465671 -707.261940 -63.514552
946.208176 -708.242099 -63.569006
947.950681 -709.222258 -63.623459
949.693186 -710.202417 -63.677912
951.435691 -711.182576 -63.732365
953.178196 -712.162735 -63.786819
954.920700 -713.142894 -63.841272
956.663205 -714.123053 -63.895725
960.000000 -716.000000 -64.000000
960.000000 -716.000000 -64.000000
960.000000 -716.000000 -66.000000
960.000000 -716.000000 -68.000000
960.000000 -716.000000 -70.000000
960.000000 -716.000000 -72.000000
960.000000 -716.000000 -74.000000
960.000000 -716.000000 -76.000000
960.000000 -716.000000 -80.000000
960.000000 -716.000000 -80.000000
958.671916 -714.505906 -80.062254
957.343832 -713.011811 -80.124508
956.015749 -711.517717 -80.186762
954.687665 -710.023623 -80.249016
953.359581 -708.529528 -80.311270
952.031497 -707.035434 -80.373524
950.703413 -705.541340 -80.435778
949.375329 -704.047246 -80.498031
948.047246 -702.553151 -80.560285
946.719162 -701.059057 -80.622539
945.391078 -699.564963 -80.684793
944.062994 -698.070868 -80.747047
942.734910 -696.576774 -80.809301
941.406826 -695.082680 -80.871555
940.078743 -693.588585 -80.933809
938.750659 -692.094491 -80.996063
937.422575 -690.600397 -81.058317
936.094491 -689.106302 -81.120571
934.766407 -687.612208 -81.182825
933.438323 -686.118114 -81.245079
932.110240 -684.624020 -81.307333
930.782156 -683.129925 -81.369586
929.454072 -681.635831 -81.431840
928.125988 -680.141737 -81.494094
926.797904 -678.647642 -81.556348
925.469820 -677.153548 -81.618602
924.141737 -675.659454 -81.680856
922.813653 -674.165359 -81.743110
921.485569 -672.671265 -81.805364
920.157485 -671.177171 -81.867618
918.829401 -669.683077 -81.929872
917.501318 -668.188982 -81.992126
916.173234 -666.694888 -82.054380
914.845150 -665.200794 -82.116634
913.517066 -663.706699 -82.178888
912.188982 -662.212605 -82.241141
910.860898 -660.718511 -82.303395
909.532815 -659.224416 -82.365649
908.204731 -657.730322 -82.427903
906.876647 -656.236228 -82.490157
905.548563 -654.742133 -82.552411
904.220479 -653.248039 -82.614665
902.892395 -651.753945 -82.676919
901.564312 -650.259851 -82.739173
900.236228 -648.765756 -82.801427
898.908144 -647.271662 -82.863681
897.580060 -645.777568 -82.925935
896.251976 -644.283473 -82.988189
894.923892 -642.789379 -83.050443
893.595809 -641.295285 -83.112696
892.267725 -639.801190 -83.174950
890.939641 -638.307096 -83.237204
889.611557 -636.813002 -83.299458
888.283473 -635.318907 -83.361712
886.955389 -633.824813 -83.423966
885.627306 -632.330719 -83.486220
884.299222 -630.836625 -83.548474
882.971138 -629.342530 -83.610728
881.643054 -627.848436 -83.672982
880.314970 -626.354342 -83.735236
878.986887 -624.860247 -83.797490
877.658803 -623.366153 -83.859744
876.330719 -621.872059 -83.921998
875.002635 -620.377964 -83.984251
873.674551 -618.883870 -84.046505
872.346467 -617.389776 -84.108759
871.018384 -615.895681 -84.171013
869.690300 -614.401587 -84.233267
868.362216 -612.907493 -84.295521
867.034132 -611.413399 -84.357775
865.706048 -609.919304 -84.420029
864.377964 -608.425210 -84.482283
863.049881 -606.931116 -84.544537
861.721797 -605.437021 -84.606791
860.393713 -603.942927 -84.669045
859.065629 -602.448833 -84.731299
857.737545 -600.954738 -84.793553
856.409461 -599.460644 -84.855806
855.081378 -597.966550 -84.918060
853.753294 -596.472456 -84.980314
852.425210 -594.978361 -85.042568
851.097126 -593.484267 -85.104822
849.769042 -591.990173 -85.167076
848.440958 -590.496078 -85.229330
847.112875 -589.001984 -85.291584
845.784791 -587.507890 -85.353838
844.456707 -586.013795 -85.416092
843.128623 -584.519701 -85.478346
841.800539 -583.025607 -85.540600
840.472456 -581.531512 -85.602854
839.144372 -580.037418 -85.665108
837.816288 -578.543324 -85.727362
836.488204 -577.049230 -85.789615
835.160120 -575.555135 -85.851869
833.832036 -574.061041 -85.914123
832.503953 -572.566947 -85.976377
831.175869 -571.072852 -86.038631
829.847785 -569.578758 -86.100885
828.519701 -568.084664 -86.163139
827.191617 -566.590569 -86.225393
825.863533 -565.096475 -86.287647
824.535450 -563.602381 -86.349901
823.207366 -562.108286 -86.412155
821.879282 -560.614192 -86.474409
820.551198 -559.120098 -86.536663
819.223114 -557.626004 -86.598917
817.895030 -556.131909 -86.661170
816.566947 -554.637815 -86.723424
815.238863 -553.143721 -86.785678
813.910779 -551.649626 -86.847932
812.582695 -550.155532 -86.910186
811.254611 -548.661438 -86.972440
809.926527 -547.167343 -87.034694
808.598444 -545.673249 -87.096948
807.270360 -544.179155 -87.159202
805.942276 -542.685061 -87.221456
804.614192 -541.190966 -87.283710
803.286108 -539.696872 -87.345964
801.958025 -538.202778 -87.408218
800.629941 -536.708683 -87.470472
799.301857 -535.214589 -87.532725
797.973773 -533.720495 -87.594979
796.645689 -532.226400 -87.657233
795.317605 -530.732306 -87.719487
793.989522 -529.238212 -87.781741
792.661438 -527.744117 -87.843995
791.333354 -526.250023 -87.906249
790.005270 -524.755929 -87.968503
788.677186 -523.261835 -88.030757
787.349102 -521.767740 -88.093011
786.021019 -520.273646 -88.155265
784.692935 -518.779552 -88.217519
783.364851 -517.285457 -88.279773
782.036767 -515.791363 -88.342027
780.708683 -514.297269 -88.404280
779.380599 -512.803174 -88.466534
778.052516 -511.309080 -88.528788
776.724432 -509.814986 -88.591042
775.396348 -508.320891 -88.653296
774.068264 -506.826797 -88.715550
772.740180 -505.332703 -88.777804
771.412096 -503.838609 -88.840058
770.084013 -502.344514 -88.902312
768.755929 -500.850420 -88.964566
767.427845 -499.356326 -89.026820
766.099761 -497.862231 -89.089074
764.771677 -496.368137 -89.151328
763.443594 -494.874043 -89.213582
762.115510 -493.379948 -89.275835
760.787426 -491.885854 -89.338089
759.459342 -490.391760 -89.400343
758.131258 -488.897665 -89.462597
756.803174 -487.403571 -89.524851
755.475091 -485.909477 -89.587105
754.147007 -484.415383 -89.649359
752.818923 -482.921288 -89.711613
751.490839 -481.427194 -89.773867
750.162755 -479.933100 -89.836121
748.834671 -478.439005 -89.898375
747.506588 -476.944911 -89.960629
746.178504 -475.450817 -90.022883
744.850420 -473.956722 -90.085137
743.522336 -472.462628 -90.147390
742.194252 -470.968534 -90.209644
740.866168 -469.474440 -90.271898
739.538085 -467.980345 -90.334152
738.210001 -466.486251 -90.396406
736.881917 -464.992157 -90.458660
735.553833 -463.498062 -90.520914
734.225749 -462.003968 -90.583168
732.897665 -460.509874 -90.645422
731.569582 -459.015779 -90.707676
730.241498 -457.521685 -90.769930
728.913414 -456.027591 -90.832184
727.585330 -454.533496 -90.894438
726.257246 -453.039402 -90.956692
724.929163 -451.545308 -91.018946
723.601079 -450.051214 -91.081199
722.272995 -448.557119 -91.143453
720.944911 -447.063025 -91.205707
719.616827 -445.568931 -91.267961
718.288743 -444.074836 -91.330215
716.960660 -442.580742 -91.392469
715.632576 -441.086648 -91.454723
714.304492 -439.592553 -91.516977
712.976408 -438.098459 -91.579231
711.648324 -436.604365 -91.641485
710.320240 -435.110270 -91.703739
708.992157 -433.616176 -91.765993
707.664073 -432.122082 -91.828247
706.335989 -430.627988 -91.890501
704.000000 -428.000000 -92.000000
704.000000 -428.000000 -92.000000
702.383013 -429.175990 -91.951000
700.766027 -430.351981 -91.902001
699.149040 -431.527971 -91.853001
697.532053 -432.703961 -91.804002
695.915067 -433.879951 -91.755002
694.298080 -435.055942 -91.706002
692.681093 -436.231932 -91.657003
691.064107 -437.407922 -91.608003
689.447120 -438.583913 -91.559004
687.830133 -439.759903 -91.510004
686.213147 -440.935893 -91.461004
684.596160 -442.111884 -91.412005
682.979173 -443.287874 -91.363005
681.362187 -444.463864 -91.314006
679.745200 -445.639854 -91.265006
678.128213 -446.815845 -91.216006
676.511227 -447.991835 -91.167007
674.894240 -449.167825 -91.118007
673.277253 -450.343816 -91.069008
671.660267 -451.519806 -91.020008
670.043280 -452.695796 -90.971008
668.426293 -453.871787 -90.922009
666.809307 -455.047777 -90.873009
665.192320 -456.223767 -90.824010
663.575334 -457.399757 -90.775010
661.958347 -458.575748 -90.726011
660.341360 -459.751738 -90.677011
658.724374 -460.927728 -90.628011
657.107387 -462.103719 -90.579012
655.490400 -463.279709 -90.530012
653.873414 -464.455699 -90.481013
652.256427 -465.631690 -90.432013
650.639440 -466.807680 -90.383013
649.022454 -467.983670 -90.334014
647.405467 -469.159660 -90.285014
645.788480 -470.335651 -90.236015
644.171494 -471.511641 -90.187015
642.554507 -472.687631 -90.138015
640.937520 -473.863622 -90.089016
639.320534 -475.039612 -90.040016
637.703547 -476.215602 -89.991017
636.086560 -477.391593 -89.942017
634.469574 -478.567583 -89.893017
632.852587 -479.743573 -89.844018
631.235600 -480.919563 -89.795018
629.618614 -482.095554 -89.746019
628.001627 -483.271544 -89.697019
626.384640 -484.447534 -89.648019
624.767654 -485.623525 -89.599020
623.150667 -486.799515 -89.550020
621.533680 -487.975505 -89.501021
619.916694 -489.151496 -89.452021
618.299707 -490.327486 -89.403021
616.682720 -491.503476 -89.354022
615.065734 -492.679466 -89.305022
613.448747 -493.855457 -89.256023
611.831760 -495.031447 -89.207023
610.214774 -496.207437 -89.158023
608.597787 -497.383428 -89.109024
606.980800 -498.559418 -89.060024
605.363814 -499.735408 -89.011025
603.746827 -500.911398 -88.962025
602.129840 -502.087389 -88.913025
600.512854 -503.263379 -88.864026
598.895867 -504.439369 -88.815026
597.278880 -505.615360 -88.766027
595.661894 -506.791350 -88.717027
594.044907 -507.967340 -88.668027
592.427920 -509.143331 -88.619028
590.810934 -510.319321 -88.570028
589.193947 -511.495311 -88.521029
587.576960 -512.671301 -88.472029
585.959974 -513.847292 -88.423030
584.342987 -515.023282 -88.374030
582.726001 -516.199272 -88.325030
581.109014 -517.375263 -88.276031
579.492027 -518.551253 -88.227031
577.875041 -519.727243 -88.178032
576.258054 -520.903234 -88.129032
574.641067 -522.079224 -88.080032
573.024081 -523.255214 -88.031033
571.407094 -524.431204 -87.982033
569.790107 -525.607195 -87.933034
568.173121 -526.783185 -87.884034
566.556134 -527.959175 -87.835034
564.939147 -529.135166 -87.786035
563.322161 -530.311156 -87.737035
561.705174 -531.487146 -87.688036
560.088187 -532.663137 -87.639036
558.471201 -533.839127 -87.590036
556.854214 -535.015117 -87.541037
555.237227 -536.191107 -87.492037
553.620241 -537.367098 -87.443038
552.003254 -538.543088 -87.394038
550.386267 -539.719078 -87.345038
548.769281 -540.895069 -87.296039
547.152294 -542.071059 -87.247039
545.535307 -543.247049 -87.198040
543.918321 -544.423040 -87.149040
542.301334 -545.599030 -87.100040
540.684347 -546.775020 -87.051041
539.067361 -547.951010 -87.002041
537.450374 -549.127001 -86.953042
535.833387 -550.302991 -86.904042
534.216401 -551.478981 -86.855042
532.599414 -552.654972 -86.806043
530.982427 -553.830962 -86.757043
529.365441 -555.006952 -86.708044
527.748454 -556.182942 -86.659044
526.131467 -557.358933 -86.610044
524.514481 -558.534923 -86.561045
522.897494 -559.710913 -86.512045
521.280507 -560.886904 -86.463046
519.663521 -562.062894 -86.414046
518.046534 -563.238884 -86.365046
516.429547 -564.414875 -86.316047
514.812561 -565.590865 -86.267047
513.195574 -566.766855 -86.218048
511.578587 -567.942845 -86.169048
509.961601 -569.118836 -86.120049
508.344614 -570.294826 -86.071049
506.727627 -571.470816 -86.022049
505.110641 -572.646807 -85.973050
503.493654 -573.822797 -85.924050
501.876668 -574.998787 -85.875051
500.259681 -576.174778 -85.826051
498.642694 -577.350768 -85.777051
497.025708 -578.526758 -85.728052
495.408721 -579.702748 -85.679052
493.791734 -580.878739 -85.630053
492.174748 -582.054729 -85.581053
490.557761 -583.230719 -85.532053
488.940774 -584.406710 -85.483054
487.323788 -585.582700 -85.434054
485.706801 -586.758690 -85.385055
484.089814 -587.934681 -85.336055
482.472828 -589.110671 -85.287055
480.855841 -590.286661 -85.238056
479.238854 -591.462651 -85.189056
477.621868 -592.638642 -85.140057
476.004881 -593.814632 -85.091057
474.387894 -594.990622 -85.042057
472.770908 -596.166613 -84.993058
471.153921 -597.342603 -84.944058
469.536934 -598.518593 -84.895059
467.919948 -599.694584 -84.846059
466.302961 -600.870574 -84.797059
464.685974 -602.046564 -84.748060
463.068988 -603.222554 -84.699060
461.452001 -604.398545 -84.650061
459.835014 -605.574535 -84.601061
458.218028 -606.750525 -84.552061
456.601041 -607.926516 -84.503062
454.984054 -609.102506 -84.454062
453.367068 -610.278496 -84.405063
451.750081 -611.454487 -84.356063
450.133094 -612.630477 -84.307063
448.516108 -613.806467 -84.258064
446.899121 -614.982457 -84.209064
445.282134 -616.158448 -84.160065
443.665148 -617.334438 -84.111065
442.048161 -618.510428 -84.062065
440.431174 -619.686419 -84.013066
438.814188 -620.862409 -83.964066
437.197201 -622.038399 -83.915067
435.580214 -623.214389 -83.866067
433.963228 -624.390380 -83.817068
432.346241 -625.566370 -83.768068
430.729254 -626.742360 -83.719068
429.112268 -627.918351 -83.670069
427.495281 -629.094341 -83.621069
425.878294 -630.270331 -83.572070
424.261308 -631.446322 -83.523070
422.644321 -632.622312 -83.474070
421.027335 -633.798302 -83.425071
419.410348 -634.974292 -83.376071
417.793361 -636.150283 -83.327072
416.176375 -637.326273 -83.278072
414.559388 -638.502263 -83.229072
412.942401 -639.678254 -83.180073
411.325415 -640.854244 -83.131073
409.708428 -642.030234 -83.082074
408.091441 -643.206225 -83.033074
406.474455 -644.382215 -82.984074
404.857468 -645.558205 -82.935075
403.240481 -646.734195 -82.886075
401.623495 -647.910186 -82.837076
400.006508 -649.086176 -82.788076
398.389521 -650.262166 -82.739076
396.772535 -651.438157 -82.690077
395.155548 -652.614147 -82.641077
393.538561 -653.790137 -82.592078
391.921575 -654.966128 -82.543078
390.304588 -656.142118 -82.494078
388.687601 -657.318108 -82.445079
387.070615 -658.494098 -82.396079
385.453628 -659.670089 -82.347080
383.836641 -660.846079 -82.298080
382.219655 -662.022069 -82.249080
380.602668 -663.198060 -82.200081
378.985681 -664.374050 -82.151081
377.368695 -665.550040 -82.102082
375.751708 -666.726031 -82.053082
374.134721 -667.902021 -82.004082
372.517735 -669.078011 -81.955083
370.900748 -670.254001 -81.906083
369.283761 -671.429992 -81.857084
367.666775 -672.605982 -81.808084
366.049788 -673.781972 -81.759084
364.432801 -674.957963 -81.710085
362.815815 -676.133953 -81.661085
361.198828 -677.309943 -81.612086
359.581841 -678.485933 -81.563086
357.964855 -679.661924 -81.514087
356.347868 -680.837914 -81.465087
354.730881 -682.013904 -81.416087
353.113895 -683.189895 -81.367088
351.496908 -684.365885 -81.318088
349.879921 -685.541875 -81.269089
348.262935 -686.717866 -81.220089
346.645948 -687.893856 -81.171089
345.028961 -689.069846 -81.122090
343.411975 -690.245836 -81.073090
341.794988 -691.421827 -81.024091
340.178002 -692.597817 -80.975091
338.561015 -693.773807 -80.926091
336.944028 -694.949798 -80.877092
335.327042 -696.125788 -80.828092
333.710055 -697.301778 -80.779093
332.093068 -698.477769 -80.730093
330.476082 -699.653759 -80.681093
328.859095 -700.829749 -80.632094
327.242108 -702.005739 -80.583094
325.625122 -703.181730 -80.534095
324.008135 -704.357720 -80.485095
322.391148 -705.533710 -80.436095
320.774162 -706.709701 -80.387096
319.157175 -707.885691 -80.338096
